# 3D point list with one line of data per point:
#   POINT3D_ID, X, Y, Z, R, G, B, ERROR, TRACK[] as (IMAGE_ID, POINT2D_IDX)
# Number of points: 594, mean track length: 5.50435
18004 -4.97406 -0.618808 5.07164 179 159 150 0.830022 6 13006 5 13067 4 12685 3 12457 2 11953 1 8360
18003 -5.23728 -0.556488 5.0283 124 111 106 0.217866 6 13017 5 13066 4 12695
18002 1.00409 -1.41253 5.36238 125 120 118 0.156308 6 13285 5 13064 4 12693 3 12454
18001 -1.76606 -1.02815 5.0462 187 169 161 0.315498 6 12984 5 13062 3 12451
18000 -2.22643 -0.97242 5.20696 155 142 133 1.35099 6 12475 5 13059 4 12988 3 12934
17999 -3.31646 -0.997293 5.37678 185 196 212 0.703116 8 12705 5 13057 4 12216
17998 -5.03962 -0.705482 5.09149 164 146 144 0.405593 6 13005 5 13052 4 12684 3 12444 1 8352
17997 -4.68215 -0.879137 5.23941 173 187 184 1.34359 6 12991 5 13040 4 12977 3 12430
17996 -4.77721 -1.14395 5.35078 167 179 193 0.166271 6 12960 5 13026 3 12412
17995 -4.94134 -1.2981 5.28383 150 150 150 1.06991 6 13271 5 13019 4 12650 3 12410
17994 -2.67058 1.19582 2.34286 94 116 127 0.675715 6 12927 5 13008 4 12607 3 12381
17993 -4.22104 1.52441 3.51794 20 21 18 0.316495 6 12390 5 12999 4 12591
17992 -4.47866 1.57228 3.58307 24 24 24 0.881038 6 12915 5 12997 4 12094 3 11898
17991 -4.72959 1.62128 3.54616 27 29 28 0.671752 6 12922 5 12995 4 12605 3 12387
17990 -1.16297 1.50105 3.49055 105 82 73 0.571726 6 13255 5 12994 4 12583 3 12352
17989 -4.45206 1.50979 3.59217 30 36 26 0.352304 6 12898 5 12974 4 12587
17988 -4.4864 1.45492 3.61107 41 52 38 0.97912 6 12897 5 12953 4 12572 3 12356
17987 -1.494 1.24016 3.43173 33 45 25 0.76253 6 12875 5 12950 4 12014 3 11805
17986 -1.494 1.24016 3.43173 33 45 25 0.76253 6 12874 5 12949 4 12013 3 11806
17985 -1.45893 1.21674 3.42751 103 119 66 1.24989 6 13220 5 12948 4 12555
17984 -1.55962 1.23688 3.40026 59 75 29 0.530358 6 13232 5 12946 4 12012
17983 -1.55962 1.23688 3.40026 59 75 29 0.530358 6 13231 5 12945 4 12011
17982 -1.7433 1.28126 3.48142 35 37 23 0.472993 6 12869 5 12941 4 12565
17981 -4.75562 1.31082 3.70028 23 28 26 1.13321 6 12846 5 12923 4 12540
17979 -1.98284 1.136 3.71762 17 21 20 0.877363 6 12825 5 12896 4 11968 3 11728 4 12538
17978 0.230362 1.11302 4.54252 22 22 22 1.72356 6 13183 7 7554 5 12856 4 11904 3 10790
17977 -0.138944 0.98232 4.51063 133 105 99 1.06753 7 7179 5 12853 4 11872
17976 -3.7019 1.1804 4.59969 154 131 116 0.374362 6 12769 5 12842 4 12505 3 12259
17975 -4.8699 1.00498 3.79569 17 23 19 0.498235 6 12764 5 12836 4 11881
17974 0.224491 0.988552 4.57843 23 25 22 1.63249 5 12829 4 11874 3 10755
17973 0.468444 0.812067 4.68008 63 68 67 0.543456 5 12812 4 12482
17972 -0.359227 0.74677 4.6311 159 153 134 1.60354 6 12734 5 12807 4 12459 3 12214 1 7570
17971 -4.43801 0.946828 4.61842 161 136 121 0.579973 6 12744 5 12796 4 12470 3 12225
17970 -3.34381 0.779887 4.81104 0 0 0 0.311757 6 12129 7 7122
17969 -3.38516 0.848247 4.75235 0 0 0 0.911712 6 12728 7 7150
17968 -4.44667 0.765542 4.68133 169 145 133 0.202069 6 12714 5 12765 3 12178 2 11734
17967 -3.21512 0.644753 4.8007 161 157 148 0.208282 7 7093 5 12749 4 12432
17966 -4.62714 0.551341 4.73142 101 67 64 0.309986 7 7075 5 12725 4 12388 3 12137
17965 -5.09286 0.620685 4.6778 163 141 120 0.564024 6 12677 5 12724 4 12400 3 12155
17964 -5.17792 0.628673 4.67582 144 133 124 0.643675 6 12676 5 12723 4 12399 3 12153 2 12031
17963 -4.31755 0.463917 4.78028 170 141 124 1.45132 7 7055 5 12710 3 11511 2 11119 1 7373
17962 -2.21613 0.236587 4.8619 128 110 98 0.699298 6 11983 5 12699 4 12378 3 12120
17961 -4.31391 0.380786 4.80029 176 143 126 0.49642 7 7054 5 12694 4 12367 3 12113 2 11668 1 8018
17960 -4.66692 0.302274 4.81052 174 156 148 0.443587 6 12640 5 12693 4 12351 3 12099 2 11640 1 7991
17959 -4.75322 0.32023 4.79522 167 150 143 0.818539 6 12639 5 12692 4 12350 3 12098 2 12009
17958 -4.75316 0.320109 4.79434 167 150 143 0.767136 6 12638 5 12691 4 12349 3 12097 2 12008 1 7990
17957 -5.05598 0.256827 4.79394 165 131 119 1.34579 6 12621 5 12671 4 12760 3 12534 2 11999 1 8413
17956 -4.36415 0.10989 4.88718 179 153 143 0.137807 6 12606 5 12658 4 12333 3 12082
17955 -0.369566 -0.233591 4.89926 81 64 68 0.205769 7 7002 5 12648 3 11421
17954 -1.58546 -0.196091 4.82107 101 117 125 0.782979 8 12782 5 12643 4 12321 3 12071
17953 -2.20646 -0.319801 4.86256 95 73 63 2.07342 6 10899 5 12622 4 12743
17952 -5.14647 -0.0808225 4.88642 90 81 86 0.284645 6 12589 5 12615 4 12280
17951 -5.14777 -0.0817663 4.89065 90 81 86 0.683425 6 12588 5 12614 4 12279 3 12491 2 12247 1 8701
17950 -2.20634 -0.406173 4.88905 88 69 71 0.348272 6 11903 5 12609 4 12727 3 12751
17949 -4.59363 -0.295098 5.01711 193 183 171 0.569106 6 12557 5 12604 4 12717 3 12479
17948 -4.59363 -0.295098 5.01711 193 183 171 0.569106 6 12556 5 12603 4 12716 3 12478
17947 -2.24666 -0.598586 5.21646 111 92 88 0.471008 6 11863 5 12592 4 12275 3 12481
17946 -2.30398 -0.62119 5.24831 140 126 116 0.676358 6 12525 5 12591 4 12273 3 12033 2 11041 1 7255
17945 -4.92296 -0.303941 4.99255 186 179 161 1.88922 5 12582 3 12025
17944 -5.04518 -0.407039 4.99777 89 85 83 1.12322 6 12537 5 12581 4 12707 3 12005 2 11964
17943 -0.83177 -0.809531 5.04447 180 163 154 0.191328 6 12503 5 12573 3 11325
17942 -2.20879 -0.761241 4.99493 85 78 72 1.17741 5 12570 4 12714 3 12473 2 12437 1 8880
17941 -5.13067 -0.473089 5.01718 171 153 145 0.820642 6 12535 5 12563 4 12237 3 12003 2 11560 1 7877
17940 -4.28915 -0.738566 5.1688 93 90 85 0.418366 6 12491 5 12545 4 12224 3 11984
17939 -4.83432 -0.58011 5.06522 178 164 148 0.298478 6 12516 5 12542 4 12238 3 11991 2 11561 1 7879
17938 -2.63547 -0.997166 5.40703 195 209 210 0.582405 6 12996 5 12537
17937 -5.12431 -0.70853 5.08726 154 136 134 0.350938 6 12489 5 12530 4 12212 3 11983
17936 -5.16123 -0.71402 5.08573 178 161 153 0.322733 6 12487 5 12529 4 12211 3 11981
17935 0.142003 -1.35475 5.24607 143 141 142 0.507367 6 12455 5 12528 4 12233 3 11990
17934 -0.41513 -1.35963 5.24503 157 158 160 0.825361 9 12204 5 12527
17933 -5.23824 -0.800856 5.10523 116 96 98 0.236665 6 12472 5 12514 4 12210
17932 -4.68943 -1.13175 5.32785 169 179 190 0.286718 6 12444 5 12504
17931 -5.05444 -1.24225 5.2563 164 148 135 0.408578 6 12441 5 12494 3 11945
17930 -4.59418 -1.53275 5.20911 167 169 171 0.485312 6 12437 5 12486 4 12176
17929 -3.95132 1.60523 3.4642 27 32 26 0.598341 6 11643 5 12454 4 12119
17928 -4.11597 1.59601 3.43135 21 20 24 0.523188 6 12409 5 12452 4 12118 3 12389 5 13005
17927 -4.34012 1.62286 3.48787 57 56 51 1.57539 6 12408 5 12449 4 12116 3 11181
17926 -2.649 1.1309 2.36918 31 47 51 1.47626 6 12401 5 12443 4 11298 3 11124
17925 -4.44886 1.61498 3.55945 27 29 26 0.333038 6 12386 5 12431 4 12115 3 11915
17924 -0.279109 1.44572 3.8117 177 187 199 0.282891 6 12334 5 12401 4 11210 3 11004
17923 -0.659863 1.45433 3.79186 159 164 167 0.444914 7 6769 5 12399 4 12057 3 11807
17922 -2.55514 1.39367 3.55504 15 15 17 0.53423 7 6758 5 12392 4 12044 3 11834
17921 -3.04775 1.38411 3.51579 10 14 13 0.699614 6 12348 5 12389 4 12042 3 11833
17920 -3.13396 1.34969 3.53729 22 27 23 0.88692 6 12347 5 12388 4 12040 3 11030
17919 -3.60216 1.38864 3.54797 15 15 15 0.343045 6 12341 5 12379 4 11196
17918 -2.6045 1.2075 3.66742 12 17 14 0.13592 6 12285 5 12338 4 11095
17917 -3.60639 1.24074 3.62636 21 27 25 1.48452 6 12276 5 12327 4 11136
17916 -4.72058 1.29763 3.76211 22 31 28 0.348594 6 12272 5 12318 4 11984
17915 -4.73903 1.22163 3.78139 26 37 29 1.13584 6 12271 5 12284 4 11944 3 10955
17914 -4.84887 1.14907 3.71942 19 28 23 0.650131 6 12229 5 12283 4 11911
17913 -4.48202 1.22575 4.52673 149 126 112 1.14451 6 12205 5 12261 4 11884
17912 -4.92705 0.98733 3.77839 30 41 37 0.79802 6 12182 5 12239 4 10979
17911 -3.66221 1.03815 4.65105 100 76 74 0.145906 6 12167 5 12223 4 11862
17910 -4.4981 1.03851 4.58677 161 134 121 0.916249 7 6553 5 12220 3 11673
17909 -2.68558 0.941072 4.79712 51 51 51 2.16165 6 12147 5 12202 4 11840 3 12231 2 11273 1 7566
17908 -3.4795 0.775863 4.77942 122 122 120 0.644933 6 12126 5 12178 3 11569
17907 -3.98584 0.808823 4.73612 65 67 63 0.503873 6 12121 5 12173 4 11807 3 11606
17906 0.71183 0.547633 4.71669 160 133 120 0.469688 6 12082 5 12154 4 10855 3 10682
17905 0.56186 0.499536 4.71416 179 156 147 1.08151 13 11700 5 12152 3 10651
17904 -0.132304 0.504999 4.68627 90 90 79 0.754271 6 12077 5 12146 4 10853 3 10647
17903 -0.505507 0.530016 4.62375 129 130 124 0.685711 17 11745 5 12144 4 11791 18 6328 20 10212 21 9753 22 8860
17902 -3.368 0.740268 4.81659 63 63 61 0.140615 6 12093 5 12131 4 11782
17901 -5.14345 0.648533 4.6607 98 81 79 0.288675 6 12084 5 12096 4 11746 3 12154
17900 -5.08153 0.570284 4.69937 155 139 126 0.307984 6 12054 5 12095 4 12387
17899 -5.20341 0.601211 4.67927 105 89 83 0.487196 6 12053 5 12094 4 11713 3 11529 2 11681
17898 -5.20341 0.601211 4.67927 105 89 83 0.487196 6 12052 5 12093 4 11712 3 11528 2 11680
17897 -2.84579 0.338827 4.91296 118 93 96 0.754686 6 11061 5 12078 4 10718 3 11489 2 10278
17896 -4.75264 0.442548 4.7599 129 100 89 0.254309 6 12027 5 12074 4 11686 3 11484 2 11667
17895 -4.9961 0.538199 4.71003 167 150 132 0.141212 6 12056 5 12073 4 11715 3 11508
17894 -4.9961 0.538199 4.71003 167 150 132 0.141212 6 12055 5 12072 4 11714 3 11507
17893 -4.72598 0.363656 4.78763 173 156 140 0.63328 6 12003 5 12039 4 11685 2 11654 1 8005
17892 -4.72598 0.363512 4.78744 173 156 140 0.716029 6 12002 5 12038 4 11684 2 11653
17891 -4.88529 0.404694 4.7646 183 163 153 1.54758 6 12026 5 12037 4 11683 3 12111 5 12689
17890 -5.01275 0.431881 4.74562 86 68 71 0.205048 6 12025 5 12036 4 11682 3 11482 3 12110
17889 -5.14235 0.325683 4.77039 96 74 76 0.65821 6 12000 5 12035 4 11660 3 11451 2 11629 1 7976
17888 -4.95354 0.296652 4.78872 164 136 124 0.242775 6 12001 5 12014 4 11661 3 11453
17887 -4.62832 0.0105746 4.95754 103 115 123 1.91472 6 11937 3 11413
17886 -5.23321 0.0220083 4.85281 101 84 86 0.713172 6 11933 5 11965 4 11609 3 11409 2 11606 1 7922
17883 -2.20796 -0.242035 4.82468 87 72 61 0.65676 6 10920 5 11955 4 12299 3 12507
17882 -5.12348 -0.0445231 4.87985 135 106 111 0.320633 6 11935 5 11951 4 11611 3 11381 2 11599 1 7924
17881 -4.20478 -0.243097 5.04361 141 145 156 0.553593 6 11897 5 11935 4 11592
17880 -4.27743 -0.274501 5.01323 124 103 102 0.216606 6 11896 5 11934 4 11591
17879 -4.95212 -0.241713 4.95757 140 119 119 1.28919 6 11891 5 11933 4 11561 3 11363 2 10977
17878 0.453045 -0.87175 5.28264 164 170 186 1.02511 6 11833 5 11931 4 11587
17877 -0.695496 -0.815259 5.0733 124 131 136 0.507939 7 6906 5 11903 4 11579 3 10340
17876 -5.14238 -0.53232 5.03312 143 123 122 0.228237 6 11837 5 11873 4 11513 3 11280
17875 -0.746821 -1.04359 5.12529 182 184 189 1.1338 7 6186 5 11868 4 10450
17874 -4.94856 -0.690868 5.08411 195 197 195 0.122869 6 11796 5 11851 4 11492 3 11261
17873 -4.94856 -0.690868 5.08411 195 197 195 0.122869 6 11795 5 11850 4 11491 3 11262
17872 -5.09094 -0.732195 5.0936 166 152 151 0.323104 6 11794 5 11840 3 11260
17871 -5.23671 -0.678518 5.07586 128 110 102 0.0902926 6 11793 5 11839 4 11489
17870 -2.35235 -1.13787 5.40181 132 118 108 0.273762 6 11770 5 11833 4 11486 3 11256
17869 -4.25537 -0.928672 5.23608 200 189 181 0.600235 6 11766 5 11827 4 11479 3 10220
17868 -5.10484 -0.88277 5.14341 189 171 162 0.299979 6 10696 5 11823 4 11473 3 11244
17867 -5.15008 -0.833152 5.12114 145 141 140 0.390016 6 11779 5 11822 4 11472 3 11252 1 7069
17866 -2.22044 -1.26226 5.22207 153 139 127 1.89172 6 10676 5 11819 4 12206 3 12427
17865 -3.36074 -1.34693 5.40494 122 113 98 0.419546 10 10708 5 11809 4 11470 3 11241
17864 -4.94069 -1.21686 5.27615 186 176 166 0.649639 6 11730 5 11802 4 11455 3 11222
17863 -4.97076 -1.1334 5.23465 130 111 115 0.363708 6 11749 5 11801 4 11457 3 11238 1 7044
17862 -5.22232 -1.07575 5.19472 167 154 146 0.417246 6 11747 5 11799 4 11466 3 11234
17861 -5.22232 -1.07575 5.19472 167 154 146 0.417246 6 11746 5 11798 4 11467 3 11235
17860 -5.20078 -1.11852 5.21026 165 149 142 0.293756 6 11745 5 11797 4 12191 1 7837
17859 -5.24253 -1.11246 5.20116 137 135 137 0.414066 6 11743 5 11795 4 11453 3 11219 1 5670
17858 -2.21088 -1.65694 5.0008 98 91 95 1.796 6 11720 7 6842 3 12408
17856 -1.06071 -3.37032 7.98399 144 186 189 0.150749 6 11703 5 11768 4 11438
17854 -10.6633 11.1755 25.1689 127 113 113 2.87258 7 2893 5 11712
17853 -4.02652 1.51273 3.48784 40 67 38 0.387193 6 11617 5 11692 4 11277
17852 -4.14176 1.56359 3.45555 16 18 16 0.477537 6 11615 5 11690 4 11316
17851 -1.80162 1.43656 3.42502 28 37 20 0.418559 7 5997 5 11670 3 9976
17850 -2.94074 1.48279 3.51762 13 25 21 0.779445 6 10364 5 11665 4 10023 3 9962
17849 -3.96376 1.44758 3.56343 53 72 51 0.476099 6 10334 5 11651 4 11222
17848 -1.78679 1.39266 3.43658 31 40 20 1.35357 7 6786 5 11638 4 11254
17847 -1.78059 1.36646 3.44538 46 71 22 0.459903 6 11550 5 11637 4 11204
17846 -3.20209 1.39156 3.49164 18 25 12 0.964267 6 12345 7 5976 5 11626
17845 -2.50846 1.16009 3.63779 13 16 18 1.07038 7 5824 5 11531 4 11098
17844 -2.50847 1.16012 3.63762 13 16 18 0.856905 7 5825 5 11530 4 11097 3 10924
17843 -4.85951 1.2018 3.66605 21 22 24 1.09842 6 11416 5 11502 4 9751 3 9764
17842 -2.62442 1.13948 3.70618 20 29 22 0.811413 6 10052 5 11484 3 10882
17841 -3.23215 1.14864 3.66205 13 23 15 0.764635 6 11381 5 11475 4 11088
17840 -3.38176 1.20092 3.75919 63 88 84 0.560259 6 11377 5 11472 4 9779 3 9699
17839 -4.74979 1.16528 3.82319 23 28 22 0.550328 6 11360 5 11451 4 11028
17838 -4.77531 1.21553 3.73027 23 30 24 0.450444 6 11418 5 11450 4 11068 3 10954
17837 -2.61912 1.04877 3.79545 9 17 12 0.485121 6 9962 5 11426 4 11047 3 10822
17836 -0.167305 1.07893 4.49057 160 162 161 0.753952 6 11282 5 11397 4 11012
17835 -4.4393 1.18207 4.54559 158 140 126 0.548946 7 5691 5 11376 4 10986 3 10805
17834 -4.88983 0.978355 3.78501 19 23 20 1.58771 6 11283 5 11373 4 11857 3 11691
17833 -0.146087 0.941296 4.52563 140 112 114 0.285286 6 11248 5 11367 4 9601 3 7065
17832 -2.48314 0.802804 3.9415 17 19 17 0.807415 7 4138 5 11353 4 10918
17831 -2.58952 0.90517 3.92223 27 40 27 0.34979 6 11272 5 11352 4 10950 3 10780
17830 -4.8861 0.900975 3.90599 16 24 22 0.812928 6 11256 5 11339 4 10901
17829 -2.70857 0.97481 4.7982 173 173 161 0.208892 6 11232 5 11321 4 10913
17828 -6.14397 2.19778 10.6425 22 25 24 1.00129 7 4118 5 11307
17827 -4.75871 0.939089 4.64356 30 31 33 0.253441 6 11224 5 11306 4 10869
17826 -3.89416 0.694231 4.75117 163 152 132 0.833441 8 10875 5 11245
17825 -4.66721 0.730503 4.71195 55 55 47 0.48306 6 11170 5 11243 3 10667
17824 -4.71102 0.733758 4.72648 58 58 49 0.215942 6 9666 5 11242 4 10830 3 11563
17823 -4.86537 0.733958 4.70211 53 51 49 0.396849 6 11169 5 11239
17822 -5.06209 0.695535 4.65455 165 146 129 0.150159 6 11168 5 11238 4 10789
17821 -0.50823 0.395567 4.62261 44 33 30 0.30605 6 11112 5 11222 4 10815
17820 -4.40383 0.555175 4.74497 176 147 137 0.718996 6 9609 5 11203 4 10753 3 10633 2 10270 1 6294
17819 -4.4041 0.555306 4.74434 176 147 137 0.715322 7 5459 5 11202 4 10752 6 9608 3 10632 2 10271 1 6295
17818 -4.53228 0.562444 4.73328 130 100 89 0.951867 6 11126 5 11201 3 11533 7 6447 2 11141 1 7371
17817 -0.932375 0.324368 4.57107 61 57 58 0.326486 6 12020 5 11182 4 9294 3 9163
17816 -4.42143 0.468483 4.77961 164 141 123 0.248329 6 11088 5 11157 4 10749
17815 -4.83796 0.461081 4.74405 187 158 152 0.352182 6 11085 5 11155 4 10707 3 10586
17814 -5.21317 0.527874 4.69991 112 90 84 0.600141 6 11124 5 11154 4 10744 3 10584 2 11089
17813 -5.23017 0.502872 4.70989 169 150 142 0.325772 6 11083 5 11153 4 10702 3 10583
17812 -1.07172 0.115114 4.74327 173 145 134 1.96828 13 10096 5 11135 4 10727
17811 -2.21296 0.196235 4.91947 151 129 118 0.622248 6 9450 5 11130 4 10722 3 10512
17810 -4.83797 0.403985 4.75963 160 141 127 0.539865 6 11086 5 11110 4 10706 3 11483 2 11652
17809 -4.82835 0.313162 4.795 171 155 143 0.414463 6 11043 5 11108 4 10669 3 10494 2 11072 1 7305
17808 -5.05724 0.429844 4.74233 174 147 134 0.467044 6 11084 5 11107 4 10705 3 10541 2 11080 1 7327
17807 -1.89056 0.0952818 4.70618 173 142 132 0.246778 6 10988 5 11086 3 10518
17806 -3.96854 0.236729 4.86894 113 104 102 0.392491 6 11010 5 11072 4 10677
17805 -4.7645 0.271487 4.81205 177 158 141 0.662873 6 11002 5 11069 4 10670 3 10493 2 10109 1 4358
17804 -4.89049 0.229583 4.81144 116 109 111 0.0938336 6 11001 5 11067 3 10492
17803 -4.93365 0.203269 4.80906 181 183 181 0.203172 6 11000 5 11066 4 10637 3 11428
17802 -5.23403 0.234999 4.79188 167 142 131 0.469764 6 10999 5 11064 3 10463 2 11047
17801 -3.64015 0.0145427 4.95725 162 135 118 0.324704 9 10326 5 11045 4 10599 3 10431 2 10115
17800 -4.94627 0.113245 4.85069 139 119 106 1.12723 6 10966 5 11040 4 10588 3 8926 2 10040 1 4203
17799 -5.09699 0.0921309 4.84385 172 134 120 0.882037 6 9382 5 11039 4 10587 3 10425 1 6037
17798 -1.60637 -0.207828 4.82024 101 115 126 0.50976 6 10924 5 11024
17797 -2.002 -0.124407 4.75855 178 150 144 0.568995 8 10688 5 11022 4 10612 3 10445
17796 -2.18419 -0.226044 4.78063 148 131 126 0.225507 6 10921 5 11018 4 10610
17795 -4.39971 -0.0198443 4.92262 177 147 136 0.842847 7 5283 5 10997 4 10591 3 10428 2 10045 1 6082
17794 -5.05232 -0.0214583 4.88243 167 133 121 0.718381 6 10936 5 10994 3 11382 2 11010
17793 -1.30584 -0.38903 4.89511 182 168 154 0.961946 8 11632 5 10982 4 10570 3 10409 6 11909
17792 -1.30354 -0.390656 4.89933 182 168 154 0.115678 6 11910 5 10981 4 10569 3 10408
17791 -3.94966 -0.241887 5.05609 139 153 155 0.911905 6 11920 5 10965 4 11593 3 10374
17790 -4.94927 -0.0554852 4.90181 118 97 94 1.16238 6 11936 5 10962 3 8845
17789 0.572893 -0.781666 5.10686 172 156 150 0.338291 6 10844 5 10933 3 8800
17788 -1.47692 -0.581215 4.93146 144 120 118 0.333063 11 10010 5 10922 4 10542 3 10368
17787 -2.83019 -0.565645 5.18697 100 86 85 0.525633 8 10584 5 10907 4 10502 3 10356 2 8384 1 4214
17786 -4.46051 -0.426121 5.04274 118 91 86 1.16343 7 5201 5 10901 2 9923
17785 -5.03985 -0.391593 4.99666 90 81 81 0.320449 6 10851 5 10899 4 10458
17784 -5.03985 -0.391593 4.99666 90 81 81 0.320449 6 10850 5 10898 4 10459
17783 -2.97313 -0.631282 5.20223 168 140 128 0.472363 8 10543 5 10874 3 8731
17782 -3.21779 -0.683322 5.19452 198 197 198 0.168695 6 10766 5 10864 4 10469 3 10322
17781 -4.82562 -0.536296 5.05052 105 97 90 0.444264 6 10794 5 10857 4 11517 3 11282
17780 -4.82541 -0.536548 5.04896 105 97 90 0.513219 6 10793 5 10856 4 11518 3 11283 2 10944 1 7119
17779 -5.21694 -0.511176 5.01611 159 141 132 0.257084 6 10789 5 10854 4 10427 3 10274
17778 -5.21731 -0.511276 5.01772 159 141 132 0.241069 6 10788 5 10853 4 10426 3 10273 1 7103
17777 -5.21786 -0.438072 4.9952 98 84 86 0.49538 6 10847 5 10852 4 10430 3 10303 2 10935
17776 -0.0541902 -1.01602 5.16375 186 174 163 0.373918 9 10107 5 10845 3 8750
17775 -2.1952 -0.875998 4.97806 189 177 168 0.674844 6 10738 5 10832 4 10444
17774 -4.95928 -0.60504 5.06728 178 162 151 0.518848 6 10792 5 10822 4 10406 1 5810
17773 -5.03304 -0.640376 5.0746 167 144 130 0.43582 6 10758 5 10819 4 10402 3 10246
17772 -5.10209 -0.634088 5.06136 170 155 150 1.30169 6 10755 5 10818 4 10400 3 10244 2 10918 1 7096
17771 -5.12665 -0.56294 5.04159 178 156 144 0.377422 6 10790 5 10817 4 10431 3 10272 2 9841 1 5808
17770 -3.09584 -1.02064 5.31904 194 175 162 0.197464 7 5069 5 10796 3 10225
17769 -4.9887 -0.708543 5.09626 113 87 90 0.179517 6 10757 5 10793 4 10405 3 10247
17768 -4.9887 -0.708543 5.09626 113 87 90 0.179517 6 10756 5 10792 4 10404 3 10248
17767 -5.1487 -0.673264 5.07382 139 117 118 0.192911 6 10753 5 10791 4 11490 3 11259 2 10917 1 7094
17766 -5.19393 -0.682804 5.07209 172 152 142 0.364365 6 10751 5 10790 4 10397 3 10243
17765 -5.24969 -0.731583 5.07795 120 100 101 0.101439 6 10725 5 10788 4 10373
17764 -2.2149 -1.35481 5.16775 140 126 115 0.26685 6 10649 5 10757 4 11476 3 11249
17763 -5.18432 -1.02183 5.17847 162 145 138 0.834453 6 10657 5 10736 3 11236
17762 -5.18432 -1.02183 5.17847 162 145 138 0.834453 6 10658 5 10735 3 11237
17761 -5.18021 -1.06736 5.19203 163 146 140 1.11149 6 10655 5 10733 3 10168 1 5688
17760 -2.25395 -1.47913 5.16489 80 70 68 0.885444 6 8918 5 10718 4 8691 3 8517 2 9894
17759 -1.3464 -1.61302 5.10011 166 167 165 0.357116 7 4972 5 10703 4 10337 3 10183 18 3262
17758 -2.39222 -1.5623 5.35588 86 82 80 0.280694 6 8915 5 10701 4 10321 3 10180
17757 -5.00514 -1.26805 5.26795 148 133 126 0.471065 6 10638 5 10700 4 10307 3 10156
17756 -5.2492 -1.27984 5.25245 129 127 132 0.287535 6 10637 5 10699 4 10306 3 10139
17755 -3.28846 -2.02619 6.71821 100 97 93 1.28677 7 161 5 10686
17754 -3.86392 -1.56389 5.25084 106 106 104 0.0298813 6 10593 5 10682
17752 -4.21742 -1.56771 5.23768 93 93 93 0.395798 6 10590 5 10679 4 10295 3 10129
17751 -5.34029 -1.42994 5.24164 130 135 138 0.168505 6 8790 5 10678 4 10292
17750 -5.33899 -1.42873 5.23777 130 135 138 0.307287 6 8791 5 10677 4 10293 3 10123
17749 -0.423449 -2.26502 5.54833 173 172 167 0.193592 6 10556 5 10674 4 10302
17748 -4.4845 -1.56877 5.22818 109 102 93 0.487557 6 10589 5 10663 4 10294
17746 -1.39681 -2.2992 5.2869 168 167 172 0.904765 9 9928 5 10647 3 8336
17745 -0.303069 -2.58705 5.44802 146 143 151 0.603944 10 9584 5 10642 3 8344
17744 -4.38703 1.62234 3.4957 88 60 57 0.386349 6 8642 5 10540 4 8243 3 10092
17743 -4.44152 1.6233 3.49186 91 62 60 0.691282 6 10447 5 10538 4 10120 3 10090
17742 -4.45878 1.62264 3.49375 91 61 61 0.364142 6 10446 5 10537 4 10118
17741 -4.47684 1.62335 3.49577 89 60 62 0.927277 6 10445 5 10534 3 10087 4 8236
17740 -4.49522 1.62317 3.48949 92 58 60 0.451701 6 10443 5 10533 4 10116
17739 -3.75531 1.54115 3.4381 42 67 35 0.209006 6 10408 5 10501 4 10071
17738 -3.8018 1.54939 3.42952 22 25 18 0.390251 6 10407 5 10500 4 8257 3 8230
17737 -4.02485 1.56278 3.47549 18 26 22 0.548065 6 10405 5 10495 4 10128 3 11149
17736 -4.49164 1.63217 3.55252 91 83 76 1.46747 6 10444 5 10488 4 10115
17735 -1.51794 1.44526 3.42612 61 83 26 1.20859 6 11597 5 10467 3 7991 4 8084
17734 -2.80393 1.53434 3.60466 51 74 68 0.419477 6 10368 5 10449 4 8187 3 8077
17733 -4.24515 1.46536 3.58257 21 29 27 0.171048 6 10330 5 10414 4 11219
17732 -2.10026 1.38567 3.53896 11 11 9 1.50936 6 10311 5 10386 4 9975
17731 -3.58893 1.37554 3.56651 60 80 77 0.0862225 6 10283 5 10368 4 7938
17730 -4.43352 1.41568 3.63565 72 101 58 0.410673 6 10259 5 10351 4 11179 3 11058
17729 -2.42692 1.30341 3.55193 11 18 16 0.388673 6 10235 5 10324 4 9968
17728 -2.60388 1.32443 3.59981 16 16 16 0.544313 6 10233 5 10323 4 9965 3 9816
17727 -3.17935 1.30279 3.5979 16 20 13 0.852213 6 10220 5 10312 4 11145 3 10981
17726 -3.57544 1.31145 3.5966 77 105 100 0.675635 6 10209 5 10298 4 7940
17725 -3.54331 1.29953 3.62125 16 22 20 0.989432 6 10210 5 10297 4 9869
17724 -4.06636 1.32423 3.58774 25 21 20 2.01786 6 10199 5 10290 4 11186
17723 -2.86775 1.17955 3.56961 89 113 107 0.145846 6 10134 5 10248 4 7672
17722 -3.70731 1.24632 3.66321 15 20 16 0.833474 6 10117 5 10222 4 9861
17721 -4.62756 1.44105 4.45596 105 93 81 0.150764 6 10097 5 10216 4 9758
17720 -4.76872 1.29571 3.68431 20 27 27 0.318293 6 10183 5 10211 4 9839
17719 -2.57583 1.12388 3.69311 16 17 17 0.653212 6 10055 5 10172 4 7675 5 8077 3 7504
17718 -3.70848 1.18026 3.69635 81 108 101 0.357407 6 10023 5 10143 4 9771
17717 -4.75075 1.18295 3.76178 28 33 27 0.713313 6 10006 5 10119 4 9753
17716 -4.86867 1.14614 3.7123 17 30 25 0.466145 6 10004 5 10114 4 9691
17715 -4.86867 1.14614 3.7123 17 30 25 0.466145 6 10003 5 10113 4 9692
17714 0.582116 1.15995 4.51489 93 70 70 0.375411 7 4301 5 10109 4 7394 3 7362
17713 0.461824 1.17051 4.53619 166 159 143 0.837178 6 9903 5 10108 4 7393 3 7361
17712 -2.42704 1.05236 3.68825 23 28 24 0.610904 6 9969 5 10088 4 9733
17711 -2.88173 1.05692 3.70453 102 130 122 0.491211 6 9954 5 10077 4 7495 3 7494
17710 -4.59929 1.29427 4.50436 139 128 119 0.666034 6 9917 5 10040 3 10860
17709 -4.5857 1.22937 4.54425 185 173 157 0.392988 6 9916 5 10038 4 9629 3 9597
17708 -1.06834 0.973544 3.88971 120 123 126 1.41032 15 9572 5 10021 3 9499 4 7381 18 1946 19 7572 20 3531 22 2908
17707 -2.04026 0.957385 3.81912 26 27 24 0.323025 6 9881 5 10012 4 9674 3 9496
17706 -3.61663 1.16788 4.60788 86 68 67 0.378497 6 9861 5 9991 4 9649 3 9540
17704 -3.73816 1.18777 4.59822 82 63 54 0.353147 6 9855 5 9987 4 9645 3 9536
17703 -3.83602 1.12186 4.61305 159 142 124 0.343194 6 9852 5 9981 4 9568 3 9530
17702 -2.42104 0.829041 3.88051 17 30 12 0.505782 7 4139 5 9942 3 9425
17701 -3.62836 1.09015 4.63007 94 77 70 0.193382 6 9817 5 9933 3 9480
17700 -4.30826 1.08026 4.58929 138 113 111 0.350531 7 4166 5 9926 4 9566 3 9474 2 10521
17699 -4.30362 1.03463 4.60574 166 138 127 0.507332 6 7579 5 9925 4 7102 3 7127 2 9117
17698 -2.66216 0.455677 2.55138 134 136 132 0.554693 6 11211 5 9895 4 9476
17697 -4.009 0.961211 4.69226 186 185 162 0.00169406 7 4063 5 9875
17696 -4.42172 0.904543 4.63975 160 136 120 0.34384 7 4060 5 9869 4 10871 3 10735 2 10440
17695 -4.73461 0.959588 4.64848 198 197 194 0.22285 6 9767 5 9867 4 9508 3 9403
17694 -0.264808 0.596393 4.62738 67 67 59 0.336503 6 7345 5 9853 4 9415 3 9306
17693 -4.43874 0.811541 4.66248 165 137 122 0.337593 7 4005 5 9806 3 9342
17692 -3.35742 0.763238 4.98877 63 63 63 0.693204 7 4018 3 9271
17691 -4.97695 0.752835 4.64633 129 105 96 0.311384 6 9722 5 9767 3 9253
17690 -5.00321 0.776878 4.63542 164 141 125 0.283644 6 9721 5 9766 4 9376
17689 -0.758219 0.389732 4.62215 62 49 49 0.711888 7 3859 5 9749 4 10810 3 9166
17688 -2.84111 0.465231 4.87751 183 168 159 0.459879 11 8820 5 9724 3 9151 2 8821 1 1905
17687 -3.25529 0.529893 4.83507 185 169 151 0.376238 10 6417 5 9720 3 9217
17686 -4.66391 0.546482 4.73115 178 157 140 0.244564 7 3868 5 9703 4 9263 3 9137
17685 -4.66391 0.546482 4.73115 178 157 140 0.244564 7 3869 5 9702 4 9264 3 9138
17684 -0.375076 0.254864 4.66941 34 33 30 0.534706 6 9518 5 9688 4 6707 3 6489
17683 -0.42168 0.28227 4.71074 26 28 26 0.192596 6 9517 5 9687 4 9300 3 9170
17682 -1.97239 0.350922 4.61478 177 152 138 0.101698 6 9561 5 9677 4 9286 3 6597
17681 -4.05678 0.464022 4.80305 184 166 155 0.286776 7 3823 5 9654 4 9273
17680 -4.4318 0.511425 4.76838 173 146 127 1.18788 6 7045 5 9653 3 9140 2 10236
17679 -4.49888 0.48655 4.76191 173 148 128 0.282834 7 3815 5 9650 3 9139
17678 -4.66292 0.461432 4.75874 182 166 152 0.421295 7 3814 5 9647 4 9220 3 9136 2 8653
17677 -4.71959 0.452631 4.75935 179 159 154 0.534945 6 9541 5 9646 4 9219 3 9134 2 10192 1 6246
17676 -4.76294 0.465346 4.75052 179 158 141 0.220914 6 9540 5 9645 4 9218
17675 -4.95114 0.457619 4.74642 176 152 140 0.723578 6 7028 5 9642 3 9130
17674 -4.9707 0.526739 4.71708 170 148 134 0.179389 6 9600 5 9641 4 9261 3 9132
17673 -5.25944 0.466517 4.71444 169 145 130 0.410099 6 7016 5 9637 4 6517 3 6517 2 10162
17672 -2.20576 0.193037 4.8366 68 49 51 0.881825 6 6880 5 9600 4 9234 3 9019 2 11147 1 7378
17671 -4.73255 0.314996 4.8005 181 165 148 0.359765 6 9488 5 9581 4 9162 3 8989 2 8540 1 4360
17670 -4.78718 0.352823 4.78385 172 152 142 0.203233 6 9485 5 9579 4 9160 3 9068 2 10141 1 6161
17669 -4.92856 0.348699 4.7764 168 145 130 0.423233 6 9477 5 9577 4 9155 2 10139
17668 -5.14248 0.422846 4.73823 89 69 69 0.207366 6 9537 5 9574 4 9214 3 9064 2 10135 1 6159
17667 -5.11672 0.387322 4.75042 164 142 128 0.406108 6 9476 5 9572 4 9213 3 9063 2 10136 1 6158
17666 -5.20371 0.407514 4.7384 130 102 98 0.434899 6 9534 5 9571 4 9212 3 9059 2 10134
17665 -5.10865 0.333372 4.76864 161 132 120 0.224551 6 9475 5 9570 4 9152 3 8984 2 10107 1 4310
17664 -5.22563 0.387929 4.74371 77 66 70 0.348352 6 9471 5 9565 4 9147 3 9058 2 10133 1 6156
17663 -3.32893 0.12213 5.22168 131 131 131 1.03975 7 5355 3 8937
17662 -3.87839 0.254916 4.87055 157 141 141 0.290017 8 9117 5 9524 3 9005 2 8604
17661 -4.56813 0.258534 4.82737 172 153 145 0.196456 6 9433 5 9515 3 8995
17660 -4.79734 0.293851 4.80453 175 156 140 0.0303559 6 9480 5 9510 3 8988
17659 -4.79643 0.293952 4.80097 175 156 140 0.354648 6 9479 5 9509 4 9157 3 8987 2 8538 1 4356
17658 -4.822 0.269418 4.80835 174 151 138 0.558852 6 9427 5 9508 3 8986 2 10108 1 6116
17657 -5.03682 0.22035 4.80562 174 142 129 1.2923 6 9421 5 9506 4 9105
17656 -5.10539 0.254658 4.79256 164 140 123 0.260778 6 9420 5 9505 4 9104 3 8983 2 10077 1 6077
17655 -5.18513 0.293204 4.77629 99 80 76 0.384036 6 9473 5 9504 4 9148 3 8977 2 10076 1 6109
17654 -5.18424 0.29338 4.77294 99 80 76 0.215434 6 9472 5 9503 4 9149 3 8978
17653 -5.20396 0.271734 4.782 107 83 81 0.337323 6 9418 5 9501 4 9102 3 8976 2 10075 1 7264
17652 -5.21924 0.21085 4.79957 78 66 66 0.729402 6 9417 5 9457 4 9100 3 8921 2 10035
17651 -5.24416 0.131346 4.81674 163 140 124 0.056559 6 9381 5 9454 4 10586 3 10460
17650 -5.24521 0.13173 4.82126 163 140 124 0.375887 6 9380 5 9453 4 10585 3 10459 2 11023 1 7247
17649 -2.21051 -0.10792 4.91025 141 128 121 0.581472 6 6762 5 9431 4 10609 3 10442
17648 -4.40584 0.0179584 4.90589 166 142 135 0.903685 7 3682 5 9422 4 9061 3 8876 2 8409 1 4263
17647 -4.53708 -0.171321 4.9619 171 147 130 0.546572 7 3602 5 9377 3 8813
17646 -4.9846 -0.156694 4.92537 174 137 140 0.478055 6 9319 5 9372 4 8981 3 8807 2 9947 1 5945
17645 -4.98461 -0.156805 4.9253 174 137 140 0.47848 6 9318 5 9371 4 8980 3 8806 2 9948
17644 -5.00364 -0.116711 4.91578 163 148 143 0.513179 6 9321 5 9370 4 8982 3 8842 2 8303 1 5968
17643 -5.00339 -0.11642 4.91568 163 148 143 0.452402 6 9320 5 9369 4 8983 3 8843 1 5969
17642 -5.07507 -0.155824 4.91629 184 163 152 0.611641 6 9317 5 9366 4 8979 3 10372 2 9945 1 5944
17641 -3.03111 -0.332756 5.10724 179 147 125 0.361604 11 8546 5 9345 3 8824
17640 -5.14447 -0.196554 4.92808 170 152 144 0.419783 6 9316 5 9330 4 8978 3 8805 2 9922
17639 -5.15896 -0.273574 4.94911 187 174 164 0.992183 6 9291 5 9329 4 8932 3 8758 2 8203
17638 -2.37959 -0.627949 5.23755 149 132 121 0.526092 10 8389 5 9309 4 8957 3 8777
17637 0.900984 -1.00904 5.20357 167 153 143 0.342515 7 3439 5 9285 4 6189 3 5999
17636 -1.24683 -0.831708 5.02679 164 144 142 0.45441 7 3426 5 9272 3 5986
17635 -2.21404 -0.664899 5.05092 163 148 128 0.482761 6 6616 5 9268 4 10478
17633 -3.92542 -0.623648 5.13633 184 160 146 0.315486 7 3464 10 5874 5 9254 4 8873 3 8685
17632 -4.0109 -0.523193 5.09781 142 129 120 0.429572 6 9204 5 9252 3 8724 2 8284
17631 -4.82967 -0.482561 5.03455 99 81 82 0.275907 6 9192 5 9241 4 8901 3 8717 2 8178 1 3978
17630 -4.82967 -0.482561 5.03455 99 81 82 0.275907 6 9191 5 9240 4 8900 3 8716 2 8177 1 3977
17629 -4.95367 -0.441396 5.01609 157 152 142 0.880246 6 9252 5 9238 4 8899 3 8712 2 8173 1 3974
17628 -4.99475 -0.465721 5.01796 181 157 147 0.282475 6 9251 5 9236 4 10457 3 10306
17627 -5.21741 -0.463257 5.00506 160 143 131 0.234867 6 9249 5 9235 4 8860 3 8711 2 9855 1 5806
17626 -3.05953 -0.88779 5.27262 173 150 136 0.297298 6 9141 5 9203 4 8823 3 8654
17625 -4.32744 -0.740101 5.14753 182 160 150 0.48171 7 3420 5 9194 4 8813 3 8640
17624 -4.86548 -0.617383 5.07711 103 90 94 0.470686 6 6499 5 9189 3 5866
17623 -4.91539 -0.600948 5.06788 188 173 162 0.236374 6 9189 5 9187 4 8861 3 8675 2 8140 1 3862
17622 -5.1282 -0.595723 5.03421 173 155 145 0.335795 6 9188 5 9185 4 8807
17621 1.05224 -1.41181 5.33624 77 66 73 1.5904 6 6365 5 9184 4 855 3 863
17620 1.0551 -1.41385 5.33999 77 66 73 1.41357 6 6366 5 9183 4 856
17619 -1.08131 -1.13239 5.12374 179 165 151 0.460803 7 3359 5 9161 3 5822
17618 -1.08181 -1.1317 5.12139 179 165 151 0.594406 7 3360 5 9160 4 8841 3 5821
17617 -1.23297 -1.08028 5.11989 173 160 152 0.549294 7 3358 5 9159 4 8840
17616 -1.23297 -1.08028 5.11989 173 160 152 0.549294 7 3357 5 9158 4 8839
17615 -2.07051 -1.04273 5.04003 189 172 161 0.154898 6 9111 5 9153 4 8829
17614 -2.21579 -0.960759 5.11359 165 149 134 1.12077 6 6469 5 9151 4 8827 3 8655
17613 -2.75199 -0.973655 5.37445 199 204 208 0.335824 6 10735 5 9144 8 8812
17612 -3.89718 -0.893983 5.23213 158 144 135 0.705888 7 3393 9 6055 5 9132 4 8776
17611 -5.01003 -0.687617 5.08874 169 149 141 0.182465 6 9159 5 9124 4 10398 3 10249
17610 -5.28336 -0.740165 5.08274 160 151 146 0.213442 6 9132 5 9122 4 10372
17609 1.01643 -1.47477 5.33579 86 82 85 0.328821 6 9024 5 9120 3 5842
17608 1.01546 -1.47444 5.33435 86 82 85 0.343713 6 9023 5 9119 4 5988 3 5841
17607 0.481423 -1.47692 5.29717 84 79 77 0.0884604 6 9004 5 9107 4 5971
17606 -3.34124 -1.15704 5.44959 189 203 216 0.967106 6 9053 8 10401 5 9085
17605 -4.02783 -1.07739 5.3694 186 201 206 0.897056 7 3337 5 9074 4 8728
17604 -4.28585 -0.935834 5.21606 120 96 92 0.168879 7 5063 5 9072 4 8775 3 8601
17603 -4.48422 -0.97824 5.21655 189 173 160 0.131794 8 8745 5 9068 4 8716
17602 -4.48495 -0.979272 5.21749 189 173 160 0.716377 8 8746 5 9067 4 8715 2 5238
17601 -4.51748 -0.97958 5.21097 186 166 158 0.639096 7 3332 5 9066 3 8540 2 5235 1 3809
17600 -4.96233 -0.870613 5.15695 133 108 107 0.327698 6 9134 5 9062 3 8599
17599 -5.27176 -0.866889 5.12262 190 175 170 0.244042 6 9079 5 9061 4 8713 3 8535
17598 -5.27176 -0.866889 5.12262 190 175 170 0.244042 6 9078 5 9060 4 8712 3 8534
17597 -1.20502 -1.49053 5.21222 82 78 75 0.687346 17 5961 5 9038 3 5673
17596 -3.08697 -1.21271 5.37771 169 151 137 0.457188 6 6343 5 9030 4 5815 3 5650 2 5385 1 486
17595 -5.22 -1.02509 5.17682 170 157 151 0.178973 6 9031 5 9010 3 8486 4 10327
17594 -5.22 -1.02509 5.17682 170 157 151 0.178973 6 9030 5 9009 4 10326 3 8485
17593 -1.29358 -1.48186 5.17694 79 76 75 0.218577 6 8947 5 8996 4 8749
17592 -2.25886 -1.43285 5.33453 74 64 65 0.64286 6 8919 5 8985 4 8692 3 8509
17591 -2.78998 -1.39869 5.41167 62 62 62 0.384017 6 8974 5 8984 4 8684
17590 -5.00947 -1.10291 5.22164 171 152 142 0.371991 6 9032 5 8972 4 8668 3 8487
17589 -1.401 -1.72669 5.296 158 139 125 0.226462 7 4971 5 8960 4 5644
17588 -2.38432 -1.59746 5.23001 87 86 82 0.91702 6 6017 5 8957 4 8655 3 8474 1 3943 2 8167
17587 -2.55576 -1.5252 5.13857 129 129 127 2.25999 6 8819 21 1432 22 1170
17585 -3.8926 -1.42399 5.33252 115 116 112 0.111422 7 3131 8 8544 5 8941
17584 -3.96219 -1.42299 5.32799 119 113 110 0.274071 6 8888 7 3129 5 8939
17583 -4.2096 -1.42286 5.31461 124 123 121 0.0115338 6 8877 5 8931
17582 -4.52394 -1.42315 5.29218 124 126 121 0.186771 6 8862 5 8914 3 8419
17581 -5.02147 -1.33771 5.28573 138 137 129 0.564696 6 6041 5 8906 4 8575 3 8394
17579 -1.65001 -1.87839 5.32115 164 164 164 1.34169 8 11464 5 8895 3 8444
17578 -4.8766 -1.42662 5.27078 123 126 121 0.113824 6 8845 5 8874 4 8550
17577 -5.19155 -1.42655 5.2481 125 127 125 0.31389 6 8797 5 8859 3 8357 4 8534
17576 -5.9019 -1.95265 7.40804 89 86 93 1.57191 6 8838 5 8854
17574 -5.39888 -2.24791 7.47971 137 137 137 1.27342 6 8775 5 8844
17573 -1.07402 -3.28268 7.87434 156 206 209 0.475046 6 8745 5 8816 4 8502
17572 -0.400893 -2.68204 5.46075 173 178 185 0.821305 8 10275 5 8811 4 8514 3 8320 10 9574
17571 -0.493436 -2.74102 5.47581 173 178 184 0.521313 10 9572 5 8806 3 8302
17570 -0.796889 -2.66771 5.42955 179 177 190 0.373661 17 8438 5 8802 3 8297
17569 -3.73001 1.59163 3.42244 36 38 39 0.198511 6 8652 5 8721 4 8261
17568 -4.13754 1.60343 3.43025 26 27 31 0.340209 6 8645 5 8719 4 5167
17567 -2.84854 1.55219 3.55633 52 78 70 0.249779 6 8524 5 8681 4 8184
17566 -3.13822 1.58454 3.47355 77 77 76 0.524833 6 10415 5 8673 4 5190
17565 -3.77768 1.5627 3.42636 18 25 23 0.244774 6 8588 5 8663 4 8258 3 8233
17564 -4.18188 1.53531 3.46362 21 22 15 1.11588 6 8575 5 8661 4 8143 3 8217
17563 -4.33108 1.53948 3.55267 30 38 23 0.249142 6 8567 5 8659 4 8137 3 8211
17562 -4.57225 1.62855 3.55728 55 54 50 0.550764 6 8639 5 8651 4 10113
17561 -1.1374 1.4896 3.48863 146 150 153 0.438422 6 8548 5 8635 4 8092 3 4949
17560 -1.53502 1.4545 3.42692 29 30 24 0.292113 6 8543 5 8625 4 8082
17559 -3.04785 1.47702 3.49832 13 22 19 0.358767 6 8516 5 8591 4 8052 3 8071
17558 -4.12701 1.46142 3.47864 16 29 15 0.310556 6 8477 5 8553 4 8144
17557 -0.964941 1.43367 3.64911 54 46 65 1.14271 6 8452 5 8525 4 4840
17556 -1.57315 1.30001 3.38147 121 133 69 0.687113 6 10250 5 8511 4 7987 3 7884
17555 -1.85264 1.34832 3.46567 89 112 61 0.776019 6 8431 5 8505 4 7976 3 7986
17554 -3.39294 1.38429 3.62327 15 17 16 0.633542 6 8399 5 8475 3 4875 4 7944
17553 -3.61473 1.37261 3.56082 63 93 91 0.262696 6 8389 5 8467 4 7937
17552 -3.92592 1.37111 3.55158 26 31 21 0.423916 6 5236 5 8459 4 7925
17551 -4.33359 1.3999 3.57642 93 104 61 0.31408 6 8366 5 8447 4 4876
17550 -0.423718 1.42683 3.89411 144 152 163 0.493226 7 2538 5 8437 4 4841
17549 -1.65861 1.22381 3.43205 110 133 46 0.353702 6 8183 5 8406 4 4625
17548 -1.69334 1.22609 3.42942 118 130 56 0.217933 6 10158 5 8403 4 7859
17547 -1.77338 1.30882 3.48631 54 64 24 0.423352 6 8322 5 8400 4 7978
17546 -1.75784 1.23794 3.49234 29 33 19 0.45745 6 8178 5 8396 4 7855
17545 -2.63102 1.31087 3.61292 16 20 15 0.206842 7 2482 5 8368 4 4594
17544 -3.03516 1.31536 3.52541 22 35 20 0.523786 6 8282 5 8363 4 4760
17543 -3.14123 1.28749 3.57982 14 20 20 0.590667 6 8270 5 8352 4 7806
17542 -0.106739 1.36342 4.17668 41 40 47 0.582465 6 8056 5 8289 4 4437 3 4487
17541 -0.108135 1.37332 4.20899 43 39 47 0.488877 6 8055 5 8288 4 7730 3 7752
17540 -1.97126 1.19485 3.65797 13 19 17 0.24799 6 8021 5 8239 4 4376 3 4455
17539 -2.38947 1.23948 3.58727 14 18 13 0.179542 6 8157 5 8233 4 4607
17538 -2.33544 1.19023 3.6243 13 17 15 0.321671 6 4938 5 8231 4 4365 3 7727
17537 -2.29732 1.16162 3.63016 16 20 19 0.178989 6 10058 5 8230 4 7684
17536 -2.59969 1.17293 3.67174 16 24 22 0.396972 6 8000 5 8225 4 4350 3 4437
17535 -0.112199 1.31586 4.41689 139 123 108 0.592487 6 4393 5 8125 4 7718
17534 -1.56267 1.12867 3.71597 36 58 21 1.02945 6 8030 5 8108 4 7698
17533 -2.0253 1.07618 3.73509 16 24 22 1.46788 7 2158 5 8094 4 7523 3 7516
17532 -3.14957 1.08102 3.67482 26 42 30 0.2484 6 7822 5 8037 4 7486
17531 -4.63121 1.3962 4.46965 89 61 65 0.191376 6 7917 5 7968 4 7593
17530 -4.63121 1.3962 4.46965 89 61 65 0.191376 6 7916 5 7967 4 7592
17529 0.494901 1.23169 4.4974 127 119 114 0.278985 6 7898 5 7945 4 4150
17528 -0.0798504 1.19244 4.4719 98 84 82 0.483118 6 7755 5 7937 3 3920
17527 -2.4051 1.0305 3.69866 27 29 30 0.260287 6 7844 5 7905 4 4091
17526 -4.31802 1.22094 4.54119 163 144 127 0.607578 7 1940 5 7839 4 7301
17525 -4.40262 1.21979 4.54351 160 132 117 0.150651 6 7785 5 7838 4 7299 3 7422
17524 -4.43924 1.24149 4.53291 74 65 68 0.198119 6 7784 5 7837 4 7298 3 9602
17523 -4.43924 1.24149 4.53291 74 65 68 0.198119 6 7783 5 7836 4 7297 3 9601
17522 -4.4596 1.24326 4.53245 148 128 115 0.202356 6 9921 5 7835 4 9634 3 9603
17521 -4.57796 1.32003 4.49834 142 130 117 0.220702 6 7918 5 7834 4 7435 3 7619
17520 -4.64883 1.30187 4.49443 137 122 117 0.339172 6 7782 5 7833 4 7434
17519 -4.66537 1.32592 4.48705 104 89 89 0.374486 6 4487 5 7832 4 3958
17518 -4.87281 1.04122 3.76109 20 26 23 1.00046 6 7768 5 7820 4 7283
17517 -4.87762 1.10132 3.71814 40 81 21 0.326534 6 7903 5 7817 4 9690
17516 -1.12882 0.975672 3.89048 109 111 108 1.85886 15 7510 4 7382 3 7193
17515 -3.59103 1.15482 4.61121 133 112 94 0.264444 6 7668 5 7745 4 7314 3 7277
17514 -3.58122 1.12335 4.62616 113 99 90 0.208762 6 9862 5 7744 4 7211 3 7150
17513 -4.27966 1.18022 4.56346 119 97 83 0.416171 6 4013 5 7734 4 7300 3 7265 2 7168
17512 -4.24977 1.12622 4.59217 113 94 85 0.453975 6 4011 5 7731 4 3570
17511 -4.29166 1.14501 4.57272 176 152 140 0.474315 7 1835 5 7730 3 7263 2 7092
17510 -4.38905 1.16424 4.5601 101 73 76 0.25686 6 7650 5 7728 4 7294 3 7260
17509 -4.51062 1.20051 4.53458 151 131 119 0.283512 7 1932 5 7725 4 7293 3 7255
17508 -4.49211 1.14196 4.55733 165 138 121 0.426247 6 3986 5 7724 3 7253
17507 -0.25622 0.859323 4.5511 133 133 133 0.874044 6 7542 5 7686 4 7161
17506 -0.618547 0.977507 4.55346 48 34 37 0.917996 13 7073 5 7685
17505 -0.947151 0.884958 4.51254 119 102 99 0.377061 6 7538 5 7683 4 7154
17504 -4.31033 1.1 4.5863 114 89 82 0.286822 6 4005 5 7627 4 3564 3 7132 2 7090
17503 -4.45479 1.02444 4.59467 122 91 87 0.205877 7 1726 5 7621 4 7092
17502 -4.90233 0.92437 3.89885 17 16 21 0.42942 6 7564 5 7608 4 7185
17501 -0.256883 0.763762 4.57801 141 141 138 0.617195 6 7427 5 7584 4 7159 3 6956
17500 -0.65119 0.756895 4.62151 34 36 35 0.279286 6 7424 5 7575 4 3264 3 3242
17499 -0.947818 0.778707 4.5473 117 107 98 0.20092 6 7421 5 7573 4 7152
17498 -2.65063 0.465901 2.55274 34 44 43 0.623009 6 9744 5 7559
17497 -2.73082 0.959377 4.796 62 66 63 1.0257 6 9784 5 7551 4 3404
17496 -3.43295 0.964801 4.72239 192 185 165 0.074932 6 7488 5 7535 4 7117
17495 -3.79361 0.967319 4.66003 78 67 65 0.198214 9 7011 5 7528 3 7025 2 6908 1 2262
17494 -4.05835 0.961887 4.69474 190 185 163 0.149421 7 1623 8 7165 5 7520 4 7104 6 7472 3 7015
17493 -4.3683 0.959774 4.6279 143 120 106 0.223718 6 7465 5 7510 4 7096 3 7009 2 8996
17492 -4.4207 0.980175 4.61309 110 77 76 0.381068 6 7460 7 1731 5 7507 4 7090 3 7006
17491 -0.26053 0.66862 4.60362 80 79 74 0.15304 6 7347 5 7469 4 7037 3 6838
17490 -0.947406 0.634355 4.5805 139 142 127 0.11233 6 7338 5 7459 4 6939
17488 -3.77977 0.841371 4.71163 127 98 87 0.48739 7 4015 5 7411 3 6907
17487 -4.09243 0.82131 4.72032 51 55 53 0.0195529 7 1524 5 7404
17486 -4.3253 0.768569 4.68802 180 159 141 0.16181 6 3461 7 1517 5 7400 4 2966 3 2961 2 2654
17485 -4.44428 0.784426 4.67622 164 139 119 0.277888 6 3452 5 7394 4 6867 3 6890
17484 -4.4988 0.852511 4.6481 143 116 97 0.229798 6 7371 5 7392 4 6990 3 6889
17483 -4.99022 0.810687 4.63026 168 126 121 0.355614 6 3432 5 7388 4 2941
17482 -0.43841 0.596016 4.62522 102 98 95 0.929751 6 7342 13 6631 5 7356 3 3067 19 3271
17481 -0.947026 0.525965 4.60826 151 150 145 0.130955 6 7213 5 7342 4 3053
17480 -1.06141 0.607349 4.59278 171 137 128 0.310904 7 1487 5 7340 4 6938
17479 -2.27161 0.639477 4.85626 86 64 50 0.340044 8 9365 5 7320 3 6803
17478 -2.88617 0.675739 4.81404 60 53 52 0.585778 9 9112 5 7316 3 6797
17477 -3.14213 0.633084 4.80141 149 125 113 0.388765 11 3107 5 7306 3 6675
17476 -3.17713 0.723895 4.76931 156 137 129 0.168313 6 7290 5 7305 4 6896
17475 -4.43023 0.740612 4.68637 116 81 79 0.243631 6 7272 5 7288 3 6775 2 8858
17474 -5.01137 0.747988 4.64483 180 152 141 0.258358 6 7267 5 7281 4 6859
17473 -5.01137 0.747988 4.64483 180 152 141 0.258358 6 7266 5 7280 4 6858
17472 -5.03859 0.680257 4.66462 121 91 90 0.247677 6 7259 5 7279 4 6739 3 6761
17471 -5.03859 0.680257 4.66462 121 91 90 0.247677 6 7258 5 7278 4 6740 3 6760
17470 -5.19917 0.678144 4.65577 136 118 106 0.503988 6 7251 5 7270 2 8757
17469 -1.05926 0.351112 3.84991 53 43 42 1.99345 6 7112 4 2879
17468 -1.29491 0.40293 4.63696 174 153 133 0.895965 15 6800 5 7201 4 6801 17 6867 3 6606 19 3070 19 3071
17467 -1.72091 0.503451 4.58006 174 153 138 0.520094 6 7204 5 7191 3 6708
17466 -1.7185 0.432081 4.60204 171 149 135 0.635385 7 1340 5 7185 4 6796 3 6602
17465 -2.1903 0.501996 4.57096 107 91 68 0.850419 6 7192 5 7177 4 6786 3 9225
17464 -3.63005 0.529284 4.8035 167 143 127 0.588993 6 7172 5 7155 4 6664 2 6444
17463 -4.32906 0.566152 4.74824 172 145 126 0.113007 6 7158 5 7141 4 6645 2 6358 1 1780
17462 -4.71438 0.54574 4.73003 171 152 137 0.199821 6 7151 5 7135 4 6630 3 6539 2 8713 1 4538
17461 -4.74714 0.546124 4.72835 110 98 93 0.215059 6 7150 5 7134 4 6628 2 8711 1 6289 5 9701
17460 -4.82454 0.58332 4.70913 163 159 147 0.566849 6 9602 5 7133 3 9202
17459 -4.85205 0.56638 4.7144 135 99 84 0.346627 6 3080 5 7131 3 2712 2 6269 1 1651
17458 -4.8831 0.566828 4.71311 68 68 66 0.268716 6 7149 5 7130 4 6626 3 6647 2 8706 1 4535
17457 -4.96983 0.661506 4.67752 98 78 73 0.476583 6 7263 5 7128 3 6645 1 4624
17456 -4.97418 0.628469 4.68719 175 153 135 0.372672 6 7148 5 7127 4 6742 3 6644
17455 -5.02152 0.649694 4.67699 163 143 121 0.433518 6 7261 5 7126 4 6737 3 6642 1 4534
17454 -5.04592 0.597505 4.69145 165 143 129 0.32914 6 7146 5 7124 3 6635 1 4532
17453 -5.08521 0.658011 4.66763 99 82 71 0.134121 6 7256 5 7123 4 6736 3 6638
17452 -5.1036 0.660626 4.6562 109 85 79 0.470768 6 7255 5 7122 3 6637
17450 -5.15059 0.566545 4.69491 103 83 78 0.350942 6 7143 5 7119 4 6618 3 6525 2 8699 1 4477
17449 -5.15053 0.566527 4.69447 103 83 78 0.33888 6 7142 5 7118 4 6617 3 6524 2 8700
17448 -5.22034 0.621381 4.67278 171 157 140 0.378775 6 3059 5 7116 4 6733 3 6628 2 8697
17447 -5.28723 0.65505 4.66116 137 125 113 0.226979 6 7248 5 7115 4 6731
17446 -4.39608 0.485062 4.76769 172 146 129 0.394346 6 7046 5 7015 3 6549 1 1660
17445 -4.40352 0.527322 4.75669 171 144 130 0.510837 6 7153 5 7009 4 6641 3 6550 1 1662
17444 -4.46542 0.482232 4.76349 178 154 134 0.623853 7 1169 5 7007 3 6548 2 8720 1 4488
17443 -4.79916 0.520217 4.73373 183 158 142 0.237587 6 3083 5 6998 4 6627 3 6538 2 8708 1 4484
17442 -4.81426 0.442349 4.75498 178 154 135 0.115283 6 7033 5 6997 3 6415
17441 -4.82876 0.430698 4.75636 93 69 65 0.177146 6 7032 5 6996 4 6536 3 6413
17440 -4.82926 0.430896 4.75896 93 69 65 0.248117 6 7031 5 6995 4 6535 3 6412 2 8587 1 4413
17439 -4.91776 0.504258 4.72625 170 149 128 0.0535145 6 7030 5 6994 3 6535 3 6536
17438 -4.97311 0.438719 4.74801 133 109 99 0.475838 6 7025 5 6993 4 6532 3 6406 2 8583 1 4406
17437 -4.96727 0.546211 4.71261 90 86 89 0.534526 6 3074 5 6992 4 6622 3 6533 2 8704 1 4482
17436 -5.06152 0.485819 4.72619 164 141 123 0.458948 6 7026 5 6991 4 6527 3 6528 2 8647 1 4402
17435 -5.18534 0.449718 4.72512 94 79 83 0.21411 6 7013 5 6989 4 6522 3 6397
17434 -5.22763 0.543707 4.69588 176 159 142 0.345542 6 7138 5 6988 4 6614 3 6523 2 8644
17433 -5.24997 0.546757 4.69147 104 74 77 0.495705 6 7137 5 6987 4 6613 3 6522 2 8643
17432 -5.19814 0.460835 4.71879 139 119 113 0.415864 6 7018 5 6985 4 6521
17431 -5.19945 0.460874 4.72311 139 119 113 0.502496 6 7019 5 6984 4 6520 3 6395 2 8578
17430 -5.21015 0.448094 4.72341 101 82 77 0.883272 6 2811 5 6983 4 2311 3 6394
17429 -5.24011 0.450893 4.7187 97 73 83 0.422319 6 2808 5 6981 3 6392
17428 -0.470841 0.18866 4.66244 67 67 67 0.133155 6 2449 5 6956 4 6598
17427 -0.741755 0.143754 4.6498 161 163 162 1.1108 6 6890 5 6955 4 2500
17426 -2.05186 0.183493 4.66441 180 151 135 0.372889 11 6231 5 6942 4 6582 3 6366
17425 -3.88705 0.36707 4.83314 188 167 150 0.91364 8 6606 5 6911 4 2405 2 8724
17424 -4.01585 0.272024 4.8544 131 110 105 0.652912 6 6943 5 6905 2 6115
17423 -4.07927 0.284824 4.85395 186 172 154 0.223716 7 1072 5 6904 3 2081
17422 -4.36179 0.349877 4.81215 166 137 123 0.656077 7 1060 5 6894 4 6544 3 6435 2 6108 6 2584 1 1419
17421 -4.4584 0.335475 4.80914 142 109 101 0.303085 6 6933 5 6891 4 6461 3 6433 2 6105 1 1413
17420 -4.601 0.38341 4.7803 165 136 120 0.214133 7 1161 5 6890 4 6537
17419 -4.80332 0.371341 4.77725 104 82 85 0.135003 6 6922 5 6885 4 6533 3 6411
17418 -4.85972 0.429217 4.75639 97 74 68 0.239268 6 7029 5 6884 4 6534 3 6410 2 8586 1 4412
17417 -4.7798 0.315988 4.79605 186 168 153 0.288588 6 6921 5 6883 4 6454 3 6324 2 8539 1 4357
17416 -4.81254 0.331377 4.78968 109 88 88 0.28308 6 6920 5 6882 4 6449 3 6320 2 5992 1 1274
17415 -4.81254 0.331377 4.78968 109 88 88 0.28308 6 6919 5 6881 4 6448 3 6319 2 5991 1 1273
17414 -4.93929 0.415787 4.75646 168 139 131 0.403185 6 7027 5 6879 4 6531 3 6408 2 8584 1 1388
17413 -4.9658 0.425307 4.74998 166 137 121 0.283521 6 7024 5 6877 4 6529 3 6404 2 8581 1 4405
17412 -5.07066 0.425896 4.74492 168 141 124 0.408669 6 7023 5 6876 3 6401 4 2315 2 6058
17411 -5.07112 0.426407 4.74735 168 141 124 0.399725 6 7022 5 6875 3 6402 4 2316
17410 -5.07705 0.406619 4.7487 118 95 87 0.233865 6 7020 5 6874 4 6524 3 6400 2 8534
17409 -5.16951 0.390995 4.74642 92 68 71 0.478156 6 2511 5 6873 4 6433 3 6390 2 8529 1 1253
17408 -5.12928 0.371021 4.75625 92 69 68 0.229133 6 6913 5 6872 4 6435 3 6399 2 8532 1 4352
17407 -5.15255 0.354036 4.75999 148 121 110 0.392553 6 6911 5 6871 3 9062 2 8486
17406 -5.15647 0.369918 4.75455 96 71 73 0.282882 6 6912 5 6870 4 6434 3 6398 2 8530 1 4351
17405 -5.17098 0.350725 4.76089 101 72 74 0.288785 6 2509 5 6869 4 6432 1 4306
17404 -5.19937 0.353653 4.75486 105 76 76 0.327583 6 6908 5 6868 4 6431 3 6389 2 8483 1 4303
17403 -5.25078 0.346177 4.75444 168 153 140 0.384194 6 6907 5 6867 4 6427 3 6301 2 8481 1 4302
17402 -3.87591 0.182617 4.89855 100 76 79 0.0828218 6 6860 5 6833 4 6480 3 6346
17401 -4.84211 0.254346 4.80967 104 78 87 0.102596 6 6844 5 6812 4 6445 3 6314
17400 -4.84244 0.254163 4.81081 104 78 87 0.184266 6 6843 5 6811 4 6444 3 6313 2 5915 1 1147
17399 -4.85952 0.251694 4.8097 172 159 143 0.32467 6 6842 5 6810 4 6380 3 6312 2 8493 1 4314
17398 -4.97204 0.275016 4.79592 143 108 107 0.236302 6 6841 5 6807 4 6440 3 6305 2 8490
17397 -4.97406 0.234324 4.80945 97 95 92 0.275612 6 6840 5 6806 3 6304 2 8446 1 4311
